# .PCD v0.7 - Point Cloud Data file format
VERSION 0.7
FIELDS x y z
SIZE 4 4 4
TYPE F F F
COUNT 1 1 1
WIDTH 1560
HEIGHT 1
VIEWPOINT 0 0 0 1 0 0 0
POINTS 1560
DATA ascii
-0.122497 0.41570401 0.163653
-0.18314999 0.611799 0.27911499
-0.263008 0.869133 0.38894901
-0.35218701 1.156655 0.51768798
-0.35302699 1.159727 0.53362697
-0.35138401 1.154807 0.54628903
-0.308492 1.0168999 0.49934801
-0.57324302 -0.92201 0.074472003
-0.53714299 -0.86308801 0.083217002
-0.47637701 -0.76396501 0.088232003
-0.49870801 -0.800304 0.100204
-0.49840501 -0.79974699 0.110072
-0.49856201 -0.799936 0.120011
-0.49815199 -0.79920101 0.12987401
-0.48541701 -0.77838099 0.137352
-0.54314399 -0.87236702 0.15939701
-0.56343901 -0.905352 0.175043
4.3692889 0.74296498 0.16685601
4.372653 0.74339002 0.213433
4.3784361 0.74422699 0.26023799
4.374064 0.74331897 0.30660501
4.3682499 0.74216098 0.352833
4.3735461 0.74290299 0.39990699
4.3715978 0.74239999 0.44650599
4.3739858 0.74263501 0.493597
4.376842 0.74294698 0.54088998
4.3724742 0.742015 0.587457
-4.5648041 3.7525361 0.207638
-4.6375041 3.8124261 0.27315599
-4.615541 3.794677 0.33475301
-4.5567842 3.7481861 0.70423198
-4.4900422 3.6965051 1.2572
-4.4872079 3.6945751 1.320123
-4.4705248 3.6812799 1.379135
-4.4799409 3.68944 1.446144
0.034733001 -1.429026 0.083962001
0.034586001 -1.425593 0.098811999
0.034150001 -1.412196 0.113117
0.033964999 -1.407482 0.12767
0.033943001 -1.408497 0.14253999
0.035013001 -1.4475369 0.160501
0.035062 -1.4511369 0.17609601
0.034432001 -1.4311171 0.189404
0.033688001 -1.407076 0.20186999
0.033581 -1.405355 0.21659499
3.1034369 2.866585 0.161134
3.107511 2.8701661 0.205617
3.1148429 2.87676 0.25046501
3.1793921 2.936353 0.30017301
3.0989799 2.861655 0.33803099
3.096662 2.859297 0.382173
3.0308299 2.7981081 0.41847199
2.847156 2.62779 0.43669701
2.821882 2.604177 0.473851
3.0961959 2.8579669 0.56035298
-5.2863131 0.541915 0.19120599
-5.2893629 0.542404 0.247016
-5.2937822 0.54303598 0.303002
-5.2868781 0.54252398 0.358466
-5.284276 0.54245198 0.41415399
-5.285964 0.54281998 0.47021499
-5.2812219 0.542539 0.52582002
-5.2836809 0.54299498 0.58216298
-3.3794861 0.34982499 0.42438999
-3.1579859 0.32745999 0.43318999
1.159445 -1.656197 0.100313
1.160686 -1.658076 0.121587
1.236431 -1.765661 0.149206
1.303477 -1.8609231 0.178719
1.3025301 -1.8597209 0.20249701
1.303131 -1.860718 0.226492
1.310912 -1.871907 0.251683
1.306704 -1.866088 0.27509999
1.3113559 -1.872846 0.30013701
1.306298 -1.865826 0.32334101
0.88032198 3.551544 0.14551499
0.88037401 3.5512481 0.183852
0.88267797 3.560091 0.222672
0.882074 3.5571041 0.261002
0.88489002 3.5680029 0.300311
0.88386399 3.5632751 0.338624
0.886253 3.5724111 0.378194
0.88550597 3.5687909 0.41670701
0.88723499 3.5752079 0.45638099
0.888165 3.578367 0.49587601
-0.56627899 -0.28523099 0.240456
-0.56860399 -0.28638199 0.24858101
-0.63297302 -0.319583 0.28001401
-0.68113202 -0.34439799 0.30691299
-0.740376 -0.37492499 0.339578
-1.828372 -0.936589 0.79930598
-1.815617 -0.92981303 0.81832802
-1.816532 -0.93008697 0.84321898
-1.820423 -0.93189102 0.86968499
-0.94110399 -0.47806999 0.48329699
3.6889291 -1.461871 0.19563299
3.689033 -1.462059 0.23726
3.6823411 -1.459569 0.278501
3.677985 -1.458004 0.319819
3.6841609 -1.460597 0.36200699
3.688097 -1.46231 0.40418801
3.690702 -1.463503 0.446394
3.6865289 -1.462025 0.48793599
3.6873951 -1.46254 0.53014499
3.6814981 -1.46039 0.57151598
-0.140852 0.419052 0.176061
-0.141294 0.420398 0.18155099
-0.14451399 0.42962199 0.189785
-0.217866 0.63860899 0.30854601
-0.37298599 1.079487 0.50531602
-0.35741201 1.035545 0.49989399
-0.33412999 0.96967697 0.483495
-0.33607101 0.97550303 0.498959
-0.337937 0.98113 0.51459903
-0.33972701 0.98655498 0.53041202
-0.640297 -1.1311491 0.080383003
-0.64299297 -1.1358809 0.094212003
-0.64561898 -1.140483 0.108159
-0.64673501 -1.142385 0.122049
-0.64586598 -1.1407371 0.135719
-0.64636397 -1.141529 0.14959399
-0.72182202 -1.276256 0.177426
-0.72401702 -1.280064 0.193362
-0.726129 -1.2837189 0.20940401
-0.72291702 -1.27786 0.22423699
4.4317422 0.94420099 0.169594
4.4331322 0.944345 0.217136
4.4292369 0.94335198 0.26448101
4.431571 0.94369203 0.312168
4.4295821 0.94310099 0.35965401
4.4290218 0.94281298 0.40728301
4.4346709 0.94385201 0.45555499
4.4350381 0.94375402 0.503492
4.435863 0.94374901 0.55159098
4.4352379 0.94342899 0.59963602
-4.6686831 3.519006 0.20590299
-4.7246838 3.561872 0.39404401
-4.6834812 3.531682 0.57630002
-4.6389551 3.4987459 0.69418699
-4.699367 3.544497 0.765127
-8.9949894 6.7775168 1.543166
-8.9941063 6.777452 1.663224
-9.0177975 6.7958989 1.788378
-9.0101576 6.7907848 1.908093
0.090047002 -1.3331029 0.081386
0.089969002 -1.332649 0.095371
0.090517998 -1.3408591 0.10978
0.091196001 -1.35087 0.124483
0.092496999 -1.369519 0.140016
0.098870002 -1.458324 0.161599
0.10112 -1.490211 0.17991
0.101307 -1.493597 0.196034
0.101128 -1.491938 0.211697
0.101357 -1.495953 0.228058
2.8801839 2.9069531 0.157474
2.8765349 2.9030621 0.200158
2.879472 2.905834 0.243219
2.8724411 2.8985131 0.28557101
2.871305 2.8971541 0.328345
2.8753619 2.901047 0.371737
2.8729069 2.898344 0.41447899
2.871515 2.8967099 0.45737901
2.8704951 2.895448 0.50038302
2.871901 2.8966351 0.54387599
-5.2400241 0.310114 0.18941601
-5.2823219 0.31274101 0.246044
-5.2965751 0.31374699 0.302239
-5.2896638 0.31353 0.357539
-5.2860932 0.31351101 0.41299501
-5.2868309 0.31374699 0.46880201
-5.2820969 0.313669 0.52422303
-3.4342411 0.206376 0.39276001
-3.3943369 0.204188 0.42471701
-3.149683 0.190073 0.43080199
0.93959302 -1.2330689 0.087297
1.295264 -1.695858 0.12577499
1.43696 -1.880329 0.159456
1.451624 -1.899543 0.18573099
1.45416 -1.902983 0.21116
1.4619 -1.9131989 0.2374
1.464096 -1.916205 0.263127
1.461357 -1.912792 0.28816301
1.467978 -1.9215651 0.314877
1.52551 -1.996617 0.35211599
0.745763 3.6133111 0.146356
0.74720299 3.619741 0.185274
0.74797398 3.6228819 0.224197
0.75082898 3.6361909 0.263841
0.75595999 3.660605 0.30460799
0.74784499 3.62029 0.340664
0.74810302 3.620862 0.379702
0.74867302 3.6229451 0.41898301
0.74877203 3.622705 0.45812801
0.75251001 3.6402111 0.499578
-0.56628603 -0.31345901 0.186528
-0.565813 -0.31314999 0.193516
-0.57607698 -0.31892601 0.20350599
-0.57461798 -0.318055 0.210389
-0.56234998 -0.31105801 0.21399701
-0.56821501 -0.31433499 0.223059
-0.56658 -0.31336099 0.229846
-0.57307702 -0.31699201 0.239415
-0.57129401 -0.31593001 0.246259
-0.65901297 -0.36554 0.28607899
0.53001398 -0.193284 0.060072999
3.7458949 -1.3238291 0.19581901
3.7423 -1.32271 0.237307
3.7336681 -1.319822 0.27844301
3.7348061 -1.3203731 0.32016
3.7290599 -1.318507 0.361379
3.731216 -1.319423 0.403301
3.731108 -1.3195471 0.445108
3.734266 -1.320824 0.48739001
3.733315 -1.32066 0.52930897
-0.145891 0.391893 0.183369
-0.16322801 0.436407 0.204671
-0.15449999 0.41413701 0.201638
-0.146153 0.39283401 0.19846
-0.254219 0.67059302 0.342603
-0.287761 0.75689298 0.39107999
-0.28961799 0.76188099 0.40349701
-0.29270601 0.77004498 0.417685
-0.296038 0.77884698 0.43250901
-0.29446399 0.77505302 0.441208
-0.61092299 -1.148393 0.080410004
-0.60984099 -1.14624 0.093950003
-0.61371601 -1.153517 0.107969
-0.61569703 -1.157187 0.121933
-0.61350399 -1.152915 0.135378
-0.61307198 -1.151988 0.14904401
-0.68179297 -1.2825871 0.176184
-0.68616903 -1.290789 0.192471
-0.685462 -1.289322 0.207766
-0.68740702 -1.292891 0.223759
4.4683399 1.058944 0.171276
4.4725718 1.059793 0.219567
4.4686742 1.058701 0.26758
4.4671502 1.058172 0.31570199
4.4689498 1.058431 0.364088
4.468349 1.058115 0.412384
4.4691601 1.05813 0.46087801
4.4732752 1.058928 0.509826
4.4740338 1.0589221 0.55857801
4.4695468 1.057662 0.60680097
-4.6740761 3.359256 0.203408
-4.672513 3.358619 0.32402599
-4.679327 3.363754 0.384947
-4.707119 3.3839409 0.447918
-4.6759148 3.3620889 0.56663001
-4.677444 3.3634591 0.62768298
-4.6736808 3.3610411 0.68818098
-4.6733618 3.361099 0.74924701
-9.0882235 6.529202 1.5335751
-9.0937462 6.5337572 1.6539969
0.125845 -1.400232 0.083310999
0.125845 -1.4007339 0.098063998
0.12619901 -1.40499 0.113022
0.126351 -1.407135 0.127959
0.12547401 -1.398387 0.14219899
0.13425 -1.491882 0.16450299
0.13507999 -1.501273 0.181153
0.13515501 -1.5026931 0.197221
0.13558 -1.507831 0.213771
0.135345 -1.5059921 0.22961
2.8002219 2.9326651 0.156443
2.800715 2.9329841 0.198961
2.797519 2.929424 0.241264
2.7919919 2.9234109 0.28331101
2.7969799 2.9284401 0.32629901
2.796252 2.92746 0.36883399
2.8019669 2.9332409 0.41226101
2.797251 2.928061 0.45440999
2.7908881 2.9211471 0.496234
2.7929749 2.9231 0.53945798
-4.9762812 0.218017 0.18201301
-5.1011081 0.22349299 0.238976
-5.3998098 0.23638099 0.30705401
-5.3732419 0.235439 0.362232
-5.3774509 0.23581199 0.419065
-5.3722539 0.235789 0.475315
-5.3830891 0.236454 0.53300601
-5.3854899 0.236765 0.59017903
-3.427321 0.153209 0.42810199
-3.161005 0.141945 0.43187699
0.93186498 -1.183148 0.086076997
1.360327 -1.7224 0.128094
1.5116791 -1.912992 0.162936
1.520522 -1.924258 0.189381
1.5188169 -1.922253 0.21497899
1.529739 -1.9361449 0.24218599
1.527079 -1.932945 0.267829
1.5279 -1.934131 0.29400101
1.530975 -1.938158 0.32066399
1.607866 -2.035136 0.36202699
0.31431901 1.654237 0.090985
0.313371 1.648832 0.108423
0.31400701 1.651934 0.12617999
0.319096 1.678959 0.145459
0.330244 1.738528 0.167641
0.67938101 3.6138301 0.33909401
0.67909497 3.6115379 0.377662
0.68017 3.6165359 0.41700399
0.680457 3.6172791 0.456054
0.68067098 3.6176131 0.49516001
-0.56057203 -0.32655701 0.158631
-0.57002401 -0.332118 0.174853
-0.56140298 -0.32694 0.17994601
-0.571715 -0.33304599 0.189688
-0.57780099 -0.33662999 0.19859099
-0.58050603 -0.33819899 0.206736
-0.57167101 -0.33289 0.211593
-0.58485103 -0.34069401 0.223019
-0.57672399 -0.33580601 0.228009
-0.57181901 -0.33283499 0.23390201
0.54216999 -0.182353 0.060290001
3.7732401 -1.227977 0.19563299
3.771488 -1.2275521 0.23716401
3.765588 -1.225787 0.27844301
3.7630091 -1.2251 0.31988701
3.765609 -1.226092 0.361772
3.7659221 -1.226348 0.40356699
3.764884 -1.226171 0.445306
3.7624979 -1.225561 0.48695299
3.761549 -1.22542 0.52883101
-0.170415 0.424977 0.212694
-0.164735 0.411477 0.212597
-0.16824301 0.41997901 0.221523
-0.25147301 0.61976701 0.33075899
-0.29455701 0.72321898 0.38844499
-0.30479401 0.74797398 0.410386
-0.30665299 0.752653 0.422968
-0.308099 0.75635302 0.43527001
-0.31151101 0.76478302 0.450297
-0.31314501 0.76895601 0.46334401
-0.581743 -1.162349 0.080383003
-0.58419502 -1.1672111 0.094212003
-0.58745199 -1.1737 0.108255
-0.585428 -1.1695009 0.121759
-0.58464599 -1.167814 0.135378
-0.58293402 -1.164243 0.148809
-0.64491802 -1.289495 0.175208
-0.65299302 -1.3056999 0.19227301
-0.65189201 -1.303342 0.20743901
-0.65547699 -1.3104579 0.22387899
4.511971 1.20341 0.173418
4.5171008 1.204622 0.22255801
4.516993 1.2044261 0.27158499
4.513545 1.2033319 0.320454
4.512445 1.202863 0.36947599
4.5184178 1.2042871 0.41913199
4.5153751 1.203289 0.468153
4.5203338 1.2044311 0.51803899
4.5125179 1.202145 0.56665802
4.5145769 1.2025 0.61647201
-4.6922698 3.1576769 0.200642
-4.7052231 3.1666031 0.26051599
-4.698905 3.162596 0.31964001
-4.6928892 3.158798 0.37868899
-4.6920562 3.158483 0.43809599
-4.70046 3.164377 0.498463
-4.6904531 3.157913 0.55713701
-4.6888671 3.15711 0.61669898
-4.6948609 3.161407 0.67737198
-4.6938338 3.1609941 0.73730701
0.17218301 -1.410135 0.083718002
0.172445 -1.41258 0.098700002
0.171822 -1.408053 0.113403
0.17179599 -1.408241 0.128307
0.171133 -1.403411 0.14288101
0.191 -1.560703 0.17046601
0.191011 -1.56126 0.187097
0.191489 -1.565521 0.20414799
0.191943 -1.569599 0.221305
0.191636 -1.567686 0.237849
2.663085 2.9791441 0.154816
2.6629241 2.978765 0.19667999
2.6624739 2.978055 0.238547
2.657166 2.97189 0.28000799
2.6600511 2.974915 0.32220599
2.661339 2.9761429 0.36436099
2.6616819 2.9763041 0.406495
2.657177 2.9710231 0.44797799
2.6588869 2.9727061 0.49044701
2.6590011 2.9725931 0.53277099
-1.198529 0.01592 0.077590004
-4.4450212 0.04135 0.213807
-4.4479122 0.041524 0.26057199
-4.4336362 0.041565001 0.306431
-4.4198689 0.041613001 0.352083
-4.4203262 0.041777 0.39865199
-4.4281182 0.042004 0.44597399
-4.4217181 0.042121001 0.49211201
-4.4246011 0.042318001 0.539253
-3.2322941 0.032818999 0.44023499
1.478531 -1.744663 0.107634
1.502804 -1.773258 0.13303
1.673308 -1.9734319 0.170183
1.6735671 -1.973875 0.19737799
1.671096 -1.971118 0.224324
1.681782 -1.983804 0.25285801
1.679567 -1.981354 0.279984
1.693651 -1.9980381 0.309636
1.698012 -2.0033171 0.33813301
1.6983761 -2.003907 0.36608601
0.24087 1.54336 0.087623
0.241137 1.544764 0.104048
0.24196801 1.549878 0.120698
0.241742 1.548027 0.13705701
0.241934 1.548916 0.15358999
0.242248 1.550599 0.170231
0.24194901 1.548238 0.186564
0.243389 1.5573061 0.20404901
0.240104 1.535289 0.21824799
0.241494 1.544004 0.235819
-0.55756098 -0.348616 0.097176999
-0.55790502 -0.34880701 0.104146
-0.55571598 -0.34737799 0.110832
-0.55865902 -0.34916401 0.132154
-0.56442899 -0.352817 0.140163
-0.56438899 -0.35275701 0.147275
-0.56346899 -0.35213399 0.154236
-0.56982797 -0.356159 0.162717
-0.56470197 -0.35284701 0.168843
-0.56765598 -0.35469401 0.17675801
0.55353802 -0.16943599 0.060479999
0.64754897 -0.197071 0.070277996
3.8007369 -1.1234111 0.237021
3.7938521 -1.121533 0.27821201
3.793139 -1.121471 0.31975099
3.792006 -1.12129 0.361301
3.801719 -1.1243 0.40392199
3.7987969 -1.1236 0.44550401
3.794518 -1.122506 0.48695299
3.7945011 -1.122669 0.52895099
-0.185717 0.42743501 0.232499
-0.181499 0.418194 0.23397
-0.165032 0.38180101 0.22249
-0.22078501 0.50550997 0.28743801
-0.28074801 0.63862503 0.36050999
-0.32835701 0.74441397 0.423383
-0.34556499 0.78281403 0.453933
-0.346957 0.78614098 0.46676701
-0.34251001 0.77651101 0.47263899
-0.33410999 0.75810498 0.47336599
-0.54337502 -1.179691 0.080356002
-0.544855 -1.182843 0.094099998
-0.54749501 -1.188542 0.108064
-0.547638 -1.188747 0.121817
-0.546911 -1.187034 0.135446
-0.54409802 -1.180734 0.148652
-0.59915698 -1.301695 0.17441
-0.605896 -1.3163821 0.191185
-0.607301 -1.319334 0.206893
-0.60863799 -1.322129 0.22268499
4.5737891 1.387813 0.17645501
4.5778999 1.388898 0.22670899
4.573997 1.387535 0.27668601
4.5761628 1.38802 0.32700199
4.570322 1.38606 0.37684301
4.5714798 1.38623 0.427214
4.5768118 1.387666 0.47808999
4.5741439 1.3866611 0.52833098
4.5737748 1.38635 0.57888699
4.5682311 1.384459 0.62888998
-4.5153751 2.838896 0.19174799
-4.5187168 2.8412049 0.24780101
-4.5174022 2.8405969 0.30371699
-4.5180812 2.841244 0.359799
-4.5157661 2.840019 0.415723
-4.5195899 2.842649 0.47225499
-4.5154428 2.8402851 0.528126
-4.5182519 2.8422899 0.58483499
-2.905926 1.830961 0.42853901
-2.663537 1.679037 0.429966
0.214205 -1.428206 0.084368996
0.212731 -1.418992 0.099149004
0.213034 -1.421267 0.114309
0.21226101 -1.416599 0.129118
0.213111 -1.422436 0.144586
0.235764 -1.569428 0.171643
0.23668399 -1.575774 0.18896
0.236081 -1.5722719 0.20543499
0.236643 -1.576322 0.222725
0.235687 -1.570547 0.238923
2.5659871 3.0117431 0.153732
2.5652089 3.0106211 0.19514599
2.564153 3.009166 0.236545
2.5621829 3.0066321 0.27786401
2.565012 3.0097439 0.31968299
2.565021 3.0095291 0.361301
2.5615809 3.00525 0.402502
2.5597639 3.002876 0.44391999
2.5614619 3.0046339 0.48596999
2.5609789 3.0038171 0.52775699
-1.095476 -0.0081799999 0.074743003
-1.102955 -0.0082440004 0.086507998
-1.116195 -0.0083839996 0.098719999
-1.100857 -0.0081390003 0.109533
-1.372589 -0.011725 0.140016
-4.4417601 -0.052506 0.40037799
-4.4407301 -0.052324999 0.44712701
-4.440186 -0.052145999 0.49399301
-4.439147 -0.051957 0.54088998
-4.456141 -0.052000001 0.59008402
0.436589 -0.502033 0.062866002
1.6177419 -1.833517 0.13763
1.763478 -1.997936 0.173949
1.7604589 -1.994676 0.201666
1.765704 -2.0007341 0.23018999
1.777891 -2.0146251 0.259763
1.773626 -2.009968 0.287525
1.77825 -2.0153389 0.31656301
1.776831 -2.013901 0.34479401
1.775214 -2.0122421 0.37301201
0.20737299 1.5343421 0.087242998
0.20748401 1.5347821 0.103487
0.2077 1.536026 0.119792
0.207259 1.5322371 0.13584
0.207816 1.536059 0.152362
0.20873199 1.542618 0.169211
0.208737 1.5422029 0.185588
0.210245 1.553248 0.203159
0.20703299 1.528273 0.216938
0.21154299 1.5621721 0.237491
-0.55645001 -0.362912 0.062839001
-0.55218798 -0.36004499 0.069605
-0.55767 -0.36366999 0.076838002
-0.55574 -0.36235601 0.083688997
-0.56353998 -0.367524 0.091314003
-0.55741 -0.36341101 0.097804002
-0.56263101 -0.36685899 0.105388
-0.56208599 -0.36646399 0.112415
-0.56147897 -0.36602801 0.119435
-0.55269402 -0.36014599 0.12525301
0.56309903 -0.161367 0.06067
3.8201499 -1.055516 0.237021
3.8198531 -1.0555789 0.27861699
3.8172431 -1.05501 0.32009199
3.824604 -1.057183 0.36239901
3.8220899 -1.0566469 0.40401101
3.81727 -1.055482 0.44540501
3.814857 -1.054981 0.48706201
3.817662 -1.0559191 0.52942801
3.820029 -1.056741 0.571904
-0.180971 0.395587 0.22529501
-0.194858 0.424871 0.24453101
-0.19429301 0.42379001 0.249807
-0.19985101 0.435588 0.26156801
-0.26880401 0.58074403 0.34248799
-0.383048 0.82127702 0.478109
-0.37114701 0.79646897 0.47630101
-0.36269599 0.77891803 0.47795001
-0.360636 0.77482301 0.48691899
-0.36076701 0.77534801 0.498604
-0.51897001 -1.188486 0.080302
-0.521164 -1.193471 0.094099998
-0.52368897 -1.199222 0.108064
-0.52344 -1.1985281 0.121759
-0.52274698 -1.196802 0.135378
-0.52006203 -1.190448 0.148573
-0.57037401 -1.307091 0.17378899
-0.57875597 -1.326405 0.19098701
-0.57933003 -1.327593 0.20645601
-0.57906801 -1.326836 0.22172999
4.6091318 1.475738 0.17810901
4.609468 1.475675 0.22884101
4.608366 1.475145 0.27954599
4.61236 1.476251 0.330594
4.6055779 1.473888 0.38100401
4.6066899 1.474058 0.43200099
4.611949 1.475558 0.48350099
4.6083102 1.474192 0.53426802
4.6088138 1.474153 0.58554697
4.607873 1.473644 0.63677001
-4.534502 2.7726369 0.19123299
-4.5294962 2.769794 0.24671701
-4.5348878 2.7732961 0.30271599
-4.533072 2.772408 0.358408
-4.52741 2.769177 0.41381299
-4.5354662 2.7743211 0.47045001
-4.5313082 2.772018 0.52608597
-4.5308232 2.7719619 0.58216298
-2.9352069 1.79864 0.42941201
-2.6959291 1.652794 0.431638
0.23171 -1.4284559 0.084449999
0.231903 -1.429912 0.099671997
0.230615 -1.422497 0.1145
0.22978599 -1.417837 0.12935001
0.232155 -1.432362 0.145473
0.25591201 -1.5752 0.17234901
0.25658399 -1.579596 0.18958101
0.25593701 -1.576095 0.206127
0.256064 -1.5772409 0.223161
0.256639 -1.581094 0.240595
2.5177169 3.0292571 0.15324301
2.51633 3.027374 0.194436
2.517174 3.0281811 0.235782
2.515867 3.026386 0.276995
2.514286 3.024256 0.31818199
2.5149319 3.0248089 0.359653
2.5153019 3.0250239 0.40117201
2.5135241 3.02264 0.44243601
2.5096021 3.0176649 0.48335001
2.5135031 3.02212 0.52572697
-1.085379 -0.025765 0.074472003
-1.095804 -0.026039001 0.086246997
-1.120815 -0.026745001 0.098958001
-1.145677 -0.027443999 0.112198
-1.145888 -0.027409 0.124259
-1.114645 -0.026441 0.133821
-1.157667 -0.027673 0.14948
-4.1407142 -0.115796 0.46381101
-4.11268 -0.114805 0.50453198
-4.0218582 -0.111961 0.53706998
1.748173 -1.899688 0.142828
1.853269 -2.013448 0.17742901
1.850155 -2.010221 0.20589601
1.850832 -2.011097 0.23469201
1.856621 -2.017504 0.264157
1.854219 -2.015058 0.292759
1.849622 -2.0102401 0.32101601
1.8461519 -2.006645 0.349379
1.848438 -2.00928 0.37874299
1.847201 -2.0081091 0.407565
0.175716 1.549163 0.087540999
0.175497 1.546674 0.103786
0.176219 1.552796 0.120411
0.176392 1.553867 0.13688301
0.17654601 1.554764 0.153385
0.17647 1.5535409 0.16976
0.17680299 1.556038 0.18647601
0.17839301 1.570019 0.204445
0.175714 1.544966 0.218357
0.179391 1.577969 0.238923
-0.55883598 -0.380582 0.063164003
-0.56430203 -0.38435501 0.070502996
-0.56567401 -0.385281 0.077743001
-0.563761 -0.38392201 0.084789999
-0.56018001 -0.381403 0.091655001
-0.56378001 -0.383876 0.099137999
-0.56008202 -0.38127401 0.10592
-0.57719898 -0.393139 0.115186
-0.56535101 -0.38487101 0.120964
-0.56788301 -0.38659799 0.12859599
0.57623202 -0.150594 0.060941
3.843684 -0.966308 0.237021
3.8443401 -0.96661597 0.27867499
3.846473 -0.96729499 0.320501
3.847225 -0.96763301 0.36232099
3.84565 -0.96739399 0.40401101
3.84934 -0.96847302 0.44629499
3.8450119 -0.96755397 0.48782599
3.8487761 -0.96866101 0.53038299
3.846426 -0.96824402 0.57229298
-0.202383 0.41499099 0.24782699
-0.207829 0.425872 0.25913501
-0.204751 0.41989201 0.26200801
-0.24482401 0.49934801 0.310572
-0.33094001 0.67004102 0.41172501
-0.37852401 0.76450402 0.474852
-0.38306499 0.77373099 0.491436
-0.377323 0.76258898 0.49630001
-0.37274301 0.75375301 0.50235999
-0.37123799 0.75101602 0.51209301
-0.492901 -1.205901 0.080463998
-0.49424201 -1.209113 0.094250001
-0.49149501 -1.202176 0.107587
-0.491631 -1.202392 0.121238
-0.49061501 -1.199746 0.13469601
-0.487717 -1.1924289 0.14771
-0.54038 -1.322946 0.174055
-0.54464698 -1.333383 0.190294
-0.54628998 -1.337308 0.206019
-0.54750699 -1.340168 0.22172999
4.6546502 1.612516 0.18049499
4.6531048 1.611804 0.23205701
4.6538339 1.611881 0.28374201
4.6494179 1.610164 0.335172
4.6472731 1.609233 0.38673401
4.652946 1.611017 0.43898499
4.650701 1.610043 0.490688
4.6544061 1.611132 0.54307503
4.6557422 1.611393 0.59537399
4.6537919 1.610505 0.64739698
-2.8240371 1.631089 0.134533
-2.822161 1.630136 0.168632
-2.8208261 1.629496 0.20274401
-2.8217311 1.630147 0.237012
-2.8248701 1.632085 0.27152601
-2.824296 1.631891 0.30582401
-2.8276479 1.6339591 0.34057799
-2.8332191 1.637307 0.37573901
-2.84777 1.645826 0.41227001
-2.710644 1.5670871 0.42781699
0.27819401 -1.4451489 0.085128002
0.27728799 -1.44081 0.100383
0.27634999 -1.436317 0.115549
0.27595001 -1.434558 0.130799
0.278929 -1.449954 0.147246
0.30533999 -1.584327 0.17376199
0.30632401 -1.5896471 0.191266
0.30670401 -1.591903 0.208601
0.30572599 -1.58727 0.225236
0.30697301 -1.593953 0.243222
2.3906231 3.0685091 0.151888
2.390511 3.0681479 0.192641
2.3907411 3.068223 0.233446
2.3852971 3.0609851 0.27375001
2.386812 3.062706 0.31470299
2.389267 3.0656321 0.355887
2.3896561 3.065891 0.39691299
2.3855841 3.0604 0.43729001
2.3866489 3.061518 0.47854599
2.386251 3.060745 0.51963699
-1.065431 -0.058272999 0.073955998
-1.0758491 -0.058869999 0.085536003
-1.101814 -0.060410999 0.098099999
-1.096302 -0.060036998 0.109359
-1.105352 -0.060547002 0.121531
-1.105468 -0.060511999 0.133194
-1.106438 -0.060529001 0.14495599
-1.146315 -0.062903002 0.160706
-3.6490359 -0.214498 0.453215
-3.6494429 -0.21437199 0.492055
0.39365101 -0.41230601 0.060236
2.035866 -2.0933089 0.186344
2.0346451 -2.0922041 0.216905
2.1208701 -2.1806231 0.256179
2.1889329 -2.250464 0.29601499
2.175267 -2.236639 0.32735899
1.845829 -1.899478 0.31260499
1.8627959 -1.917001 0.34337401
1.862475 -1.916827 0.37169799
1.859902 -1.91435 0.39965901
0.13788401 1.565805 0.087894
0.13772701 1.563307 0.104272
0.13846 1.5713969 0.121127
0.137702 1.561711 0.137115
0.13750499 1.558702 0.153385
0.138033 1.56431 0.17030901
0.13879301 1.572659 0.187629
0.138638 1.570102 0.20404901
0.137407 1.5547251 0.21901201
0.140008 1.584887 0.239282
-0.56535703 -0.40721899 0.063734002
-0.56676102 -0.40822199 0.071101002
-0.57759398 -0.41615 0.079077996
-0.58361101 -0.42053899 0.086992003
-0.57928699 -0.41733101 0.094178997
-0.58201098 -0.41929901 0.101963
-0.596497 -0.42990401 0.111154
-0.58882803 -0.42423701 0.117957
-0.58583301 -0.422003 0.125222
-0.593786 -0.42780501 0.13408899
0.58752602 -0.13768201 0.061158001
3.8735981 -0.87028497 0.23735499
3.874259 -0.87057501 0.27908099
3.8773589 -0.87141299 0.32104701
3.8762031 -0.87130398 0.36279199
3.878438 -0.87195599 0.40489799
3.874511 -0.87123698 0.446493
3.8720641 -0.87085199 0.48826301
3.878706 -0.8725 0.53121901
3.8810911 -0.87320203 0.57384801
-0.214985 0.416751 0.26283801
-0.21844301 0.42333901 0.27239901
-0.21228001 0.411901 0.27217001
-0.29572701 0.568479 0.36774099
-0.38313401 0.73257899 0.472462
-0.38907799 0.74395198 0.49030799
-0.39772299 0.76040697 0.51175803
-0.37029299 0.70915699 0.49101999
-0.365172 0.69977701 0.49595201
-0.36283201 0.69562203 0.504188
-0.470658 -1.2200201 0.080600001
-0.467051 -1.210407 0.093912996
-0.47141701 -1.221769 0.108112
-0.467713 -1.2118959 0.121238
-0.467794 -1.211979 0.1349
-0.46782601 -1.211928 0.148573
-0.51128203 -1.326075 0.173345
-0.51916498 -1.346653 0.19059099
-0.52177101 -1.353345 0.20667399
-0.51980799 -1.3480181 0.221371
4.6933842 1.731696 0.18261001
4.694593 1.731963 0.23508599
4.6934471 1.731355 0.28750801
4.6899471 1.729871 0.339807
4.692369 1.730576 0.39253101
4.6887598 1.729044 0.44487
4.6938171 1.730716 0.49805099
4.693759 1.7304879 0.55089301
4.686769 1.72769 0.60301697
4.689332 1.728422 0.65635198
-4.6145039 2.5267079 0.189741
-4.6162791 2.52788 0.244959
-4.619267 2.5297179 0.30033201
-4.6182971 2.5293989 0.35556901
-4.6185369 2.5297461 0.41094801
-4.6225619 2.5321651 0.46676201
-4.619194 2.530551 0.52200502
-4.6118841 2.5267889 0.576819
-2.924464 1.605171 0.41751099
-2.747927 1.508872 0.42829499
0.31147099 -1.454419 0.085561998
0.30963501 -1.4462579 0.100831
0.30965099 -1.446574 0.116359
0.30795601 -1.439065 0.13143601
0.316277 -1.47737 0.149634
0.34274399 -1.598702 0.175488
0.34320799 -1.601114 0.19295201
0.343005 -1.600477 0.21018501
0.34359401 -1.60348 0.227856
0.342684 -1.599627 0.244774
2.31759 3.0909541 0.15115599
2.3192511 3.0929589 0.191743
2.3177209 3.0906899 0.232159
2.3171151 3.0896521 0.27264899
2.3209519 3.0945539 0.31367999
2.318666 3.091259 0.35408199
2.3196459 3.0923259 0.394961
2.3197839 3.092262 0.43580601
2.3161581 3.0871561 0.47603399
2.316957 3.0879619 0.51713002
-1.054582 -0.074380003 0.073684998
-1.0738029 -0.075819999 0.085499004
-1.084084 -0.076571003 0.097290002
-1.081522 -0.076335996 0.108548
-1.088617 -0.076840997 0.12044
-1.092652 -0.07711 0.13225199
-1.115098 -0.078787997 0.145843
-1.094489 -0.077166997 0.15556
-1.172139 -0.083063997 0.17588399
-3.688379 -0.27540499 0.497309
0.400444 -0.40571201 0.060236
2.1345041 -2.1227429 0.19073001
2.1471651 -2.1354289 0.223395
2.2689171 -2.2561519 0.26716101
2.287236 -2.2744601 0.302921
2.2503409 -2.2380879 0.33223799
1.938924 -1.929798 0.321412
1.951251 -1.942162 0.35232699
1.946698 -1.937809 0.38077301
1.950238 -1.9414769 0.41067499
0.10963 1.573944 0.088056996
0.10952 1.571442 0.104496
0.10972 1.5736639 0.121127
0.109524 1.569839 0.13746201
0.109191 1.563889 0.15358999
0.109168 1.562662 0.16999499
0.109969 1.573956 0.18753999
0.109413 1.564569 0.20325799
0.110065 1.573541 0.22086801
0.110899 1.585234 0.239043
-0.58353299 -0.43721899 0.064629003
-0.58803201 -0.44062299 0.072485
-0.59480399 -0.445761 0.080604002
-0.58981001 -0.44191599 0.088035002
-0.59254998 -0.44397399 0.096019998
-0.595999 -0.44657299 0.10416
-0.59626597 -0.44674101 0.112042
-0.59646702 -0.446859 0.119936
-0.60436499 -0.45284799 0.128934
-0.60054702 -0.44989699 0.13635699
0.59677702 -0.127849 0.061347
3.8682921 -0.79215199 0.236306
3.870892 -0.792822 0.277922
3.8663361 -0.792041 0.31913701
3.869998 -0.79293299 0.36098701
3.870347 -0.79315603 0.40268001
3.8683469 -0.79290497 0.444217
3.870703 -0.79354298 0.48629799
3.869751 -0.79351401 0.52811497
3.871227 -0.79398203 0.57034898
-0.223882 0.41747299 0.271126
-0.222674 0.415402 0.27607101
-0.224415 0.418659 0.28408799
-0.305998 0.56607801 0.377592
-0.40132299 0.738406 0.490769
-0.38181001 0.70337898 0.48027301
-0.37948701 0.69940299 0.48862499
-0.37216601 0.686396 0.49107301
-0.36445299 0.67267901 0.492762
-0.363287 0.67080402 0.50226098
-0.450609 -1.227566 0.080600001
-0.45149899 -1.2299 0.094398998
-0.45133999 -1.229327 0.108112
-0.44779801 -1.219395 0.121238
-0.445546 -1.213027 0.134423
-0.446246 -1.214823 0.14818101
-0.489492 -1.334272 0.173345
-0.49703801 -1.3549761 0.19059099
-0.49820599 -1.358037 0.206238
-0.49865401 -1.359102 0.22172999
4.7289939 1.831903 0.184508
4.7256021 1.8304 0.237517
4.728097 1.831183 0.290797
4.7282448 1.831049 0.344037
4.7251301 1.829643 0.397102
4.7260642 1.829806 0.450519
4.7219129 1.827988 0.50355202
4.7272711 1.82986 0.55762202
4.7284498 1.830103 0.61142403
4.7200079 1.826602 0.66411299
-4.6456952 2.4521019 0.18952499
-4.645752 2.452333 0.24458501
-4.6487718 2.4541271 0.29985499
-4.6425948 2.4510839 0.35464099
-4.6437168 2.4518881 0.40992501
-4.6460562 2.453337 0.46542799
-4.6461411 2.4536049 0.52085102
-4.6448398 2.45315 0.576226
-2.962522 1.567487 0.419258
-2.787102 1.475258 0.430563
0.33510801 -1.45218 0.085643001
0.334492 -1.449782 0.101168
0.33473799 -1.451049 0.116836
0.33247301 -1.441653 0.1319
0.34902999 -1.5122581 0.15249901
0.36977801 -1.600709 0.176116
0.37139899 -1.607869 0.194105
0.370287 -1.603417 0.21107499
0.370251 -1.603549 0.22851101
0.36972499 -1.601603 0.245729
2.2610919 3.1094761 0.15064
2.260422 3.10833 0.190883
2.265842 3.1155839 0.23163401
2.261225 3.108983 0.271606
2.2615449 3.1091881 0.31204301
2.262192 3.1098399 0.35259101
2.2614419 3.1085589 0.39300999
2.2615931 3.108515 0.43362901
2.2597749 3.1057479 0.47396001
2.261148 3.1073749 0.51498097
-1.046636 -0.087963 0.073495001
-1.0648611 -0.089574002 0.085199997
-1.074157 -0.090375997 0.096860997
-1.076488 -0.090549 0.108316
-1.0816261 -0.090972997 0.12003
-1.0944411 -0.092088997 0.132487
-1.071053 -0.089938998 0.141939
-1.03688 -0.086818002 0.149821
-1.0444829 -0.087462001 0.16169
-1.0519511 -0.088091001 0.17373
0.4057 -0.40185201 0.060263
2.2083781 -2.146996 0.194115
2.23454 -2.1724751 0.22860999
2.367461 -2.3013239 0.27425399
2.3838141 -2.317327 0.310846
2.064548 -2.0083449 0.30562299
2.006917 -1.9526891 0.327943
2.017226 -1.962826 0.35920599
2.0160711 -1.961867 0.38889199
2.014689 -1.960692 0.41858101
0.091092996 1.557417 0.087568998
0.090744004 1.550017 0.103636
0.090865999 1.551272 0.119982
0.090659998 1.546479 0.136014
0.090925001 1.550329 0.152567
0.090704001 1.5452009 0.168504
0.091058999 1.550658 0.185322
0.090820998 1.545195 0.20118
0.092170998 1.568821 0.220213
0.091599002 1.557158 0.235461
-0.59419501 -0.45243499 0.065117002
-0.58857697 -0.44804701 0.072672002
-0.585226 -0.445416 0.080223002
-0.59344298 -0.451754 0.088556997
-0.59616202 -0.45382801 0.096634001
-0.59416801 -0.45224801 0.104317
-0.60371399 -0.459611 0.113284
-0.603903 -0.459721 0.121321
-0.59630799 -0.453796 0.128279
-0.60254002 -0.45858699 0.13719299
0.60139799 -0.124978 0.061455999
3.880739 -0.77013898 0.236688
3.872752 -0.768709 0.27774799
3.872041 -0.76871401 0.31920499
3.8785911 -0.77015102 0.361301
3.8808579 -0.77074897 0.40321201
3.8817279 -0.77107602 0.445108
3.87833 -0.77056599 0.48662499
3.8840721 -0.77186102 0.52930897
3.881716 -0.77156502 0.571127
-0.22304399 0.407848 0.26688501
-0.22704799 0.415039 0.27693799
-0.22190601 0.40605301 0.27789199
-0.28716999 0.521685 0.35274401
-0.39390001 0.710805 0.47602099
-0.38902 0.70237797 0.48168299
-0.38370401 0.69317901 0.486709
-0.37544501 0.67876601 0.48814601
-0.36929801 0.66809499 0.491768
-0.36688 0.66403699 0.499733
-0.43715599 -1.230337 0.080545999
-0.437374 -1.230826 0.094250001
-0.43819299 -1.2330329 0.108064
-0.434755 -1.223065 0.12118
-0.43289301 -1.2176 0.134423
-0.43486801 -1.223101 0.148495
-0.47460499 -1.336524 0.173079
-0.48322701 -1.3609999 0.19069
-0.48403999 -1.36315 0.206238
-0.48447701 -1.36422 0.22172999
4.744709 1.8992161 0.18559299
4.744967 1.899134 0.239163
4.747436 1.899936 0.29289499
4.744832 1.8986959 0.34641299
4.7417078 1.897244 0.39989799
4.7435198 1.897769 0.45381501
4.7448049 1.898078 0.50781
4.7410259 1.896348 0.561382
4.743978 1.897315 0.61579198
4.7472968 1.898424 0.67044199
-4.6640782 2.39553 0.189253
-4.6658888 2.396657 0.244286
-4.662818 2.395287 0.29914001
-4.6644711 2.3963411 0.354294
-4.6673508 2.3980269 0.40965199
-4.6636071 2.3963261 0.46456501
-4.6645741 2.3970439 0.51996398
-4.6676269 2.3988349 0.57573098
-2.8920889 1.489292 0.40823001
-2.8147061 1.4497859 0.432116
0.34711501 -1.454406 0.085778996
0.347177 -1.454874 0.101467
0.34650299 -1.4523211 0.117027
0.343472 -1.440081 0.13195799
0.360093 -1.508654 0.15243
0.38335299 -1.604562 0.17666499
0.383176 -1.604097 0.19401699
0.385263 -1.612954 0.21236201
0.384763 -1.6111749 0.22971199
0.38352799 -1.6063761 0.246685
2.2370131 3.1220109 0.15053201
2.2346399 3.1184649 0.190621
2.2354479 3.11937 0.230919
2.2331631 3.115937 0.27096799
2.2323451 3.1145549 0.311156
2.2329929 3.1152191 0.35157099
2.2362399 3.1195171 0.39247701
2.234122 3.1162961 0.432639
2.235167 3.1174991 0.473414
2.233696 3.1151719 0.51378602
-1.0183671 -0.095395997 0.072736003
-1.061008 -0.099632002 0.085087001
-1.0663919 -0.100134 0.096527003
-1.066772 -0.100134 0.107794
-1.08069 -0.101488 0.12003
-1.048663 -0.098245002 0.128878
-1.029232 -0.096262999 0.13821299
-1.015559 -0.094857 0.147743
-1.047469 -0.098003 0.162127
-1.058808 -0.099091999 0.174685
0.377204 -0.363563 0.058961
1.694774 -1.602134 0.15778799
1.7180589 -1.624137 0.184166
1.691847 -1.599611 0.206521
1.68618 -1.594399 0.230416
1.7623169 -1.666109 0.26436901
1.779708 -1.682592 0.292418
1.774809 -1.678118 0.31760699
1.774693 -1.6781451 0.343519
1.798497 -1.700675 0.37386701
0.061811 1.568683 0.087839998
0.061914001 1.570106 0.104347
0.06177 1.564489 0.120554
0.061760001 1.562627 0.13688301
0.061951999 1.5664721 0.15358999
0.061793 1.5603499 0.16960301
0.061974999 1.563845 0.186387
0.062084001 1.565205 0.20306
0.062881 1.585904 0.22195999
0.062286999 1.56739 0.236535
-0.59577602 -0.474381 0.065522999
-0.60474402 -0.48161599 0.073942997
-0.60448903 -0.48137501 0.082033999
-0.60645503 -0.482934 0.090295002
-0.60225999 -0.4795 0.098067001
-0.60257101 -0.479716 0.106201
-0.59901398 -0.47679701 0.113905
-0.59235901 -0.471369 0.121123
-0.597794 -0.47573301 0.129917
-0.61148697 -0.48678401 0.14017799
0.59929198 -0.110175 0.061319999
3.906245 -0.68151897 0.23711701
3.9117539 -0.68261099 0.27908099
3.9071651 -0.681961 0.320501
3.9079411 -0.68224102 0.36232099
3.906353 -0.68211597 0.40401101
3.912039 -0.68325299 0.446493
3.9134259 -0.68365002 0.4887
3.917253 -0.68447399 0.53133899
3.9091101 -0.68323201 0.57255203
-0.225725 0.38947499 0.26566899
-0.236651 0.407814 0.282318
-0.24338099 0.41916099 0.29537001
-0.32666901 0.558375 0.38799399
-0.39476001 0.67228502 0.468995
-0.40029699 0.68174201 0.485751
-0.394308 0.67194301 0.490098
-0.38701099 0.65995902 0.492762
-0.37584001 0.64149302 0.49063101
-0.37117901 0.63391602 0.49581501
-0.407974 -1.245488 0.080681004
-0.40817899 -1.245981 0.094437003
-0.40773901 -1.244468 0.108112
-0.40334699 -1.230683 0.121006
-0.403124 -1.22984 0.13455901
-0.40346 -1.230726 0.14826
-0.44186899 -1.349761 0.17325699
-0.449581 -1.37351 0.190789
-0.45004001 -1.3747489 0.206238
-0.44955301 -1.373045 0.221371
2.6832969 1.147715 0.12507001
2.696846 1.153438 0.156216
2.6947639 1.152432 0.186869
2.7257249 1.165642 0.219629
2.864398 1.2251869 0.26129401
4.7965822 2.056267 0.462603
4.7968721 2.0561781 0.517658
4.7975278 2.056241 0.57286102
4.7976489 2.0560679 0.62813002
4.7954431 2.054888 0.683218
-4.697392 2.2916989 0.18879201
-4.7001152 2.29322 0.243688
-4.6979041 2.292345 0.29842499
-4.7013502 2.2942259 0.35354
-4.7033911 2.295428 0.40869701
-4.703145 2.295521 0.46377999
-4.6997352 2.2940819 0.51863402
-4.704597 2.2966721 0.574444
-2.9212589 1.429008 0.40812099
-2.8422029 1.390677 0.43187699
0.376517 -1.459249 0.086103998
0.376086 -1.457812 0.101841
0.37661099 -1.460014 0.117742
0.37310499 -1.446874 0.132769
0.39694101 -1.537879 0.155022
0.415966 -1.610584 0.177764
0.41577601 -1.610111 0.195259
0.41677901 -1.614187 0.21325199
0.416244 -1.612408 0.23069499
0.41566101 -1.610453 0.248117
2.1705329 3.139976 0.14988101
2.170454 3.139631 0.189873
2.1723659 3.1421721 0.23006099
2.170702 3.1395161 0.26998299
2.1710269 3.139744 0.31013301
2.1722281 3.1412351 0.350472
2.1704121 3.138344 0.39043701
2.168916 3.135911 0.430462
2.1710651 3.1387589 0.47123
2.1702011 3.137229 0.511518
-1.039258 -0.113296 0.073360004
-1.032079 -0.112432 0.084040001
-1.040391 -0.113354 0.095334999
-0.989142 -0.107408 0.103275
-0.99140298 -0.107632 0.113891
-0.99647099 -0.108178 0.124798
-0.99558699 -0.108038 0.135286
-1.004306 -0.109003 0.146753
-1.013864 -0.110062 0.15852401
-1.022318 -0.110992 0.170387
0.39673999 -0.37438601 0.059558
1.560683 -1.446679 0.147872
1.561193 -1.447253 0.170259
1.56297 -1.448997 0.192811
1.566011 -1.451907 0.21558499
1.565993 -1.452002 0.23810899
1.562923 -1.4492871 0.26025701
1.563273 -1.449726 0.282886
1.564162 -1.450666 0.30566901
1.560573 -1.447481 0.327728
0.057009999 1.571813 0.087921001
0.056952 1.568328 0.104272
0.056825999 1.562712 0.120459
0.056885 1.562812 0.13688301
0.056940001 1.562739 0.153317
0.056926999 1.560535 0.16960301
0.057100002 1.5640301 0.186387
0.056919999 1.556597 0.202169
0.057937998 1.586092 0.22195999
0.057434 1.568552 0.236655
-0.59301001 -0.47154799 0.065415002
-0.60350901 -0.480014 0.073867999
-0.60478097 -0.48100901 0.082033999
-0.60293502 -0.47948101 0.090005003
-0.60255098 -0.47913399 0.098067001
-0.602862 -0.47935 0.106201
-0.59626102 -0.47397101 0.11355
-0.592646 -0.47100899 0.121123
-0.59504598 -0.472913 0.12948
-0.59737599 -0.474758 0.13790999
0.60371202 -0.113269 0.061455999
3.9085009 -0.69697899 0.23735499
3.900481 -0.69570202 0.278559
3.9036219 -0.69639897 0.32043299
3.901504 -0.69617099 0.36200699
3.9028111 -0.69655198 0.40392199
3.909456 -0.69788003 0.446493
3.9069951 -0.69760299 0.48826301
3.90218 -0.696913 0.52978599
3.901732 -0.69700003 0.571904
-0.237299 0.41536799 0.27953801
-0.233761 0.40947801 0.282318
-0.238195 0.41711301 0.29311201
-0.329319 0.571886 0.39490801
-0.394373 0.68249601 0.473694
-0.39154601 0.677903 0.48144099
-0.392573 0.67986101 0.49351299
-0.37760299 0.65464401 0.487297
-0.37129101 0.64413601 0.49063101
-0.37092701 0.64374298 0.50095898
-0.41898799 -1.2397521 0.080627002
-0.41919899 -1.240244 0.094361998
-0.41657799 -1.232217 0.107683
-0.415463 -1.228717 0.121122
-0.41306701 -1.221364 0.13421801
-0.41526699 -1.227827 0.148338
-0.45509699 -1.347424 0.173434
-0.46179599 -1.367388 0.19059099
-0.462576 -1.3695509 0.206128
-0.46207401 -1.367853 0.22125199
4.7836719 1.985762 0.187491
4.775753 1.982271 0.24144401
4.7836251 1.985355 0.29608899
4.7746649 1.981423 0.34988999
4.7706208 1.979535 0.403923
4.7750988 1.981191 0.45868
4.7672992 1.97773 0.51242298
4.7716188 1.97931 0.56741899
4.774498 1.980284 0.62245202
4.7696338 1.978029 0.676651
-4.6858182 2.3351581 0.189036
-4.6902819 2.3375759 0.24409901
-4.6889529 2.3371201 0.29899701
-4.6871071 2.336411 0.35388801
-4.687376 2.3367579 0.40897
-4.6880021 2.3372869 0.46417299
-4.6872282 2.3371251 0.51934302
-4.6885591 2.3380151 0.57484001
-2.9125979 1.455339 0.40855801
-2.836483 1.417644 0.432713
0.36809701 -1.460382 0.086076997
0.36669901 -1.45514 0.101654
0.36745599 -1.458297 0.117551
0.36524501 -1.44989 0.132827
0.38710999 -1.535329 0.154681
0.40597299 -1.609092 0.17745
0.40554401 -1.607673 0.19481499
0.40555501 -1.607971 0.21236201
0.40600401 -1.609982 0.230149
0.406645 -1.612753 0.248117
2.180311 3.1391749 0.15001699
2.179671 3.1380219 0.19002301
2.1771181 3.1341031 0.22987001
2.1771221 3.133873 0.269925
2.1757729 3.1316841 0.30985999
2.176419 3.1323709 0.35008001
2.1773829 3.1335111 0.39043701
2.1758809 3.131083 0.430462
2.1808131 3.1379409 0.47177601
2.1799419 3.136409 0.512115
-1.034555 -0.111111 0.073224001
-1.034205 -0.111036 0.084114999
-1.0454431 -0.112279 0.095573001
-0.988334 -0.105749 0.103217
-0.99936199 -0.106967 0.114437
-0.99566603 -0.10651 0.124719
-0.99089301 -0.10593 0.13484199
-1.004475 -0.107435 0.146753
-1.009184 -0.107929 0.157978
-1.026366 -0.109838 0.170864
0.39244699 -0.37320501 0.059448998
1.583275 -1.478587 0.149731
1.547823 -1.445783 0.169622
1.5474451 -1.445537 0.191856
1.546178 -1.444466 0.21401601
1.5805939 -1.476531 0.240593
1.581812 -1.477777 0.263621
1.58428 -1.480186 0.28692499
1.582989 -1.479107 0.30972901
1.584375 -1.4805191 0.333042
0.067822002 1.566468 0.087785996
0.067777999 1.563967 0.104122
0.067574002 1.557373 0.120221
0.067634001 1.557475 0.136593
0.067648999 1.556425 0.152908
0.067658998 1.555205 0.169211
0.067971997 1.561636 0.18620899
0.067702003 1.55323 0.20187201
0.068733998 1.577842 0.22108699
0.068377003 1.567137 0.236535
-0.59312099 -0.46347499 0.065279
-0.591398 -0.46207201 0.073082998
-0.594221 -0.46428499 0.081128001
-0.60235 -0.47071701 0.089658
-0.60580099 -0.473427 0.097998001
-0.602283 -0.47059301 0.10573
-0.60865998 -0.47562799 0.114526
-0.60195202 -0.47025499 0.121816
-0.60818398 -0.47517201 0.13079099
-0.60135698 -0.469704 0.13790999
0.60738403 -0.120167 0.061592001
3.8888371 -0.73345602 0.236735
3.894335 -0.734626 0.27861699
3.8868699 -0.73337501 0.31975099
3.8943901 -0.73492903 0.36200699
3.891845 -0.73460501 0.40356699
3.8946359 -0.735282 0.44570199
3.8979459 -0.73606098 0.48804501
3.894098 -0.73550498 0.52966702
3.8936501 -0.73558998 0.57177502
-0.211908 0.38363099 0.25415999
-0.229591 0.414646 0.27737099
-0.220047 0.398067 0.27390799
-0.26859701 0.48310199 0.33060801
-0.369086 0.65907001 0.445604
-0.391727 0.69889498 0.48074299
-0.38424101 0.68600601 0.48335701
-0.38100299 0.68055302 0.49058601
-0.37268701 0.66621101 0.491768
-0.36816099 0.65850699 0.49720401
-0.438867 -1.231813 0.080600001
-0.43908599 -1.232302 0.094324
-0.43990701 -1.234506 0.108159
-0.434513 -1.218987 0.120948
-0.433945 -1.217225 0.134423
-0.433979 -1.21718 0.14802399
-0.47899899 -1.345348 0.17396601
-0.484404 -1.360582 0.19069
-0.48360199 -1.358124 0.20569199
-0.483073 -1.356439 0.22077399
4.7410541 1.868507 0.185186
4.745882 1.870229 0.23878901
4.744709 1.869574 0.29222801
4.7366328 1.866184 0.345254
4.734426 1.8651119 0.39860201
4.7317019 1.863832 0.45193201
4.7321 1.86378 0.50559199
4.736516 1.8653131 0.55979902
4.732224 1.863397 0.61317098
4.7355771 1.8644969 0.66757601
-4.65238 2.4288001 0.18938901
-4.6567941 2.4313011 0.24458501
-4.6572089 2.4317231 0.299712
-4.6553679 2.4309759 0.35475701
-4.6547532 2.430871 0.40992501
-4.6527538 2.4300511 0.465036
-4.6545782 2.431226 0.520585
-4.6558781 2.4321351 0.576226
-2.909817 1.522961 0.411724
-2.8041191 1.468057 0.43199599
0.33441699 -1.4523391 0.085643001
0.33447501 -1.452809 0.10128
0.33404601 -1.451208 0.116836
0.33201 -1.442766 0.13195799
0.34629199 -1.503836 0.151885
0.36879 -1.599932 0.176037
0.36973599 -1.604236 0.19374999
0.370637 -1.608353 0.21156999
0.37015301 -1.606578 0.228839
0.37051699 -1.608426 0.246565
2.2763469 3.1044171 0.150776
2.2791491 3.1080279 0.191294
2.280544 3.1097081 0.23182499
2.2759011 3.1031229 0.27183801
2.2773781 3.1049061 0.31245199
2.2774489 3.1047599 0.352983
2.280735 3.1090069 0.39407399
2.278573 3.105794 0.434421
2.279623 3.1069679 0.47537899
2.2758131 3.1014891 0.51545799
-1.054159 -0.080141999 0.073684998
-1.06848 -0.081283003 0.085312001
-1.08365 -0.082493 0.097290002
-1.082067 -0.082323998 0.108606
-1.088181 -0.082787 0.12044
-1.089286 -0.082837 0.132017
-1.105873 -0.084155999 0.145045
-1.097949 -0.083462998 0.155956
-1.027632 -0.077652998 0.159725
-1.074008 -0.081410997 0.176357
0.40208799 -0.40960601 0.060343999
2.118104 -2.118341 0.190015
2.127954 -2.1283 0.222294
2.245208 -2.245224 0.26545501
2.2829189 -2.2829499 0.30315599
2.2565229 -2.2568331 0.33383501
1.926567 -1.928341 0.32042199
1.9360991 -1.93799 0.35079899
1.933643 -1.935702 0.37945899
1.933042 -1.935266 0.408472
0.125861 1.571744 0.088030003
0.125725 1.569243 0.104459
0.12632 1.576357 0.121317
0.126086 1.5725321 0.137694
0.12576599 1.56756 0.15393101
0.126028 1.570236 0.170702
0.126872 1.580538 0.18825001
0.12584899 1.566275 0.203554
0.126149 1.569394 0.220541
0.12747499 1.5859441 0.239282
-0.56542498 -0.40712401 0.063734002
-0.565247 -0.406964 0.071025997
-0.56659001 -0.40792 0.078410998
-0.57735801 -0.415795 0.086528003
-0.57935798 -0.41723201 0.094178997
-0.57576698 -0.41456199 0.101336
-0.58947098 -0.42458901 0.110356
-0.59284198 -0.427028 0.118452
-0.58984202 -0.42478999 0.12576801
-0.58835697 -0.42366299 0.13325299
0.58924699 -0.14316399 0.061239
3.86728 -0.90227199 0.23740301
3.8679371 -0.902569 0.27913901
3.866256 -0.90232801 0.32077399
3.8651021 -0.90221298 0.36247799
3.8625679 -0.90178102 0.40409899
3.8681791 -0.90324003 0.446592
3.868588 -0.90349799 0.4887
3.8685601 -0.90366 0.53086102
3.867147 -0.90350401 0.57294101
-0.207709 0.41994801 0.25670201
-0.208671 0.42193601 0.26366699
-0.21160699 0.42778501 0.27282301
-0.28156999 0.56460202 0.354516
-0.37950599 0.75617301 0.471311
-0.38610101 0.76929301 0.49008101
-0.37793499 0.75355899 0.49215201
-0.37882599 0.75554401 0.50470901
-0.36870399 0.73598701 0.50395101
-0.36096299 0.721084 0.50571001
-0.497857 -1.2028 0.080436997
-0.49847201 -1.204188 0.094136998
-0.50088698 -1.209985 0.108112
-0.497688 -1.202021 0.121354
-0.49665999 -1.199378 0.13483199
-0.49743199 -1.20114 0.148652
-0.54623199 -1.32054 0.174055
-0.55313301 -1.337293 0.19098701
-0.55442297 -1.340299 0.20667399
-0.55417597 -1.339535 0.221968
4.6297641 1.548471 0.17927501
4.6310201 1.548717 0.23048601
4.6336269 1.549413 0.28183499
4.6292148 1.547747 0.332854
4.6308041 1.548093 0.384278
4.6309519 1.547951 0.435689
4.632442 1.548255 0.48731601
4.6306362 1.547448 0.53872102
4.634799 1.548638 0.59089702
4.6319609 1.547474 0.64238203
-4.548584 2.7170539 0.190772
-4.5536761 2.720299 0.24653
-4.5532022 2.720232 0.30214399
-4.5530682 2.720372 0.35782799
-4.550745 2.7192121 0.41340399
-4.5487599 2.71826 0.46903801
-4.5538378 2.7215199 0.52546501
-4.5516772 2.720474 0.58127201
-2.9477711 1.764704 0.42864799
-2.7145441 1.625839 0.43187699
0.242495 -1.432642 0.084613003
0.24135201 -1.426356 0.099597
0.240013 -1.418951 0.114405
0.23999199 -1.419129 0.12952401
0.242963 -1.436533 0.145882
0.26719299 -1.576306 0.172585
0.26839599 -1.583588 0.19011299
0.267557 -1.579121 0.206622
0.268024 -1.582186 0.22392599
0.268457 -1.585066 0.241312
2.5218589 3.0283661 0.15329801
2.523607 3.0302601 0.19469801
2.5238249 3.030308 0.236068
2.519382 3.0247359 0.277053
2.5196791 3.024869 0.31845501
2.5197001 3.0246639 0.359889
2.51882 3.0233691 0.40125999
2.5201621 3.0247459 0.44303
2.5193529 3.023524 0.48455101
2.513905 3.01671 0.525249
-1.095479 -0.0076959999 0.074743003
-1.1049221 -0.0077800001 0.086583003
-1.120124 -0.0079380004 0.098911002
-1.09988 -0.0076359999 0.109475
-4.4197769 -0.050402999 0.352083
-4.4388452 -0.050480999 0.400143
-4.4505382 -0.05046 0.44801399
-4.4382539 -0.050127 0.49379501
-4.440146 -0.049970999 0.54100001
-4.5000482 -0.050547 0.59545702
1.499274 -1.751509 0.10815
1.53521 -1.793376 0.134414
1.702199 -1.987494 0.17161299
1.699246 -1.98421 0.198826
1.70442 -1.99037 0.22684801
1.7093951 -1.996305 0.25505501
1.7058721 -1.992368 0.28229001
1.711089 -1.998592 0.31082401
1.712281 -2.0001421 0.338898
1.710729 -1.998509 0.36656401
0.28028899 1.672294 0.091311
0.28057101 1.673648 0.109134
0.27908 1.664163 0.12646601
0.277403 1.653537 0.143547
0.28409401 1.6940089 0.16402601
0.60534298 3.654767 0.34129199
0.60558301 3.6553409 0.38041201
0.280388 1.6701469 0.21592399
0.27951899 1.66442 0.233206
0.283831 1.690279 0.25432599
-0.56092602 -0.32594901 0.158631
-0.56154603 -0.32628101 0.165776
-0.56789899 -0.33002001 0.174282
-0.57085299 -0.331736 0.182153
-0.57372802 -0.33340299 0.190109
-0.57652199 -0.33502099 0.19814999
-0.58251798 -0.338539 0.207197
-0.58104402 -0.33761701 0.21424
-0.58195698 -0.33811101 0.22201601
-0.58930999 -0.34243 0.23191699
0.53210402 -0.193285 0.060127001
3.7512159 -1.320551 0.195969
3.7448361 -1.318468 0.23735499
3.7343471 -1.314948 0.27838501
3.7327089 -1.314531 0.31988701
3.7343571 -1.315269 0.36169299
3.7337389 -1.3152159 0.40338999
3.73455 -1.315668 0.445306
3.734941 -1.315977 0.48728099
3.73399 -1.31582 0.52918899
-0.148719 0.41926101 0.187085
-0.150757 0.42484501 0.19421101
-0.14823 0.41813999 0.19700301
-0.23124 0.642542 0.32000601
-0.274946 0.76062697 0.38069999
-0.27991301 0.77425402 0.39688
-0.284161 0.78596002 0.41260701
-0.28397 0.78569198 0.42295599
-0.29084501 0.804519 0.44288
-0.28960001 0.80142999 0.452236
-0.650967 -1.134111 0.080600001
-0.65272498 -1.137115 0.094437003
-0.655379 -1.141697 0.108445
-0.65360302 -1.1384701 0.122049
-0.65369499 -1.138531 0.135855
-0.65468198 -1.140168 0.149829
-0.72805399 -1.269328 0.17715999
-0.73268902 -1.277375 0.19356
-0.73241502 -1.276768 0.209076
-0.73398602 -1.27941 0.22507299
4.3958921 0.81229597 0.167913
4.3915162 0.81132102 0.21459299
4.3963089 0.812051 0.26166901
4.3929 0.81124902 0.30840099
4.3957572 0.81161201 0.35556099
4.395236 0.81134099 0.40257499
